ply
format ascii 1.0
comment steps_graph.py: Urls visited=1 row order ORDER BY id
element vertex 368
property float x
property float y
property float z
property int id
property int src_id
property float nx
property float ny
property float nz
end_header
0.1397365871401479 -0.2027073217656382 0.18870273977883595 1190 1151 -0.31127049789899075 -0.7943350218574563 0.5216728382697617
0.1364024467100043 -0.21121575584252708 0.19429058222816245 1191 1151 -0.7167779009784295 0.6276261369526983 -0.3038336269783014
0.10968183967690673 -0.187818617975523 0.18296403471763553 1192 1151 0.7604836246363194 -0.03647694928021172 0.6483317737325655
0.13707835559987608 -0.18913270455070016 0.2063202664457354 1193 1151 -0.813530896016957 -0.45587013598046705 0.36104002596249274
0.09798228240530017 -0.21104057835214227 0.22367086413085022 1205 1192 -0.041434590831823805 0.9194210282817558 -0.3910858568599976
0.08912848209742988 -0.014577429571360163 0.14010310081143257 1211 1150 -0.7531480424521971 -0.32666117407184764 -0.571017078119758
0.011211859913666631 -0.04837202750909051 0.0810287629276459 1232 1155 0.682799207189003 0.4401941229011628 0.5831075173802382
0.028501513134339063 -0.03722555332662643 0.09579405067215972 1235 1155 -0.24219604169675032 -0.450884484194778 -0.859095023439686
0.025302403972325086 -0.04318117784588881 0.08444647149096211 1236 1155 -0.7731883147534403 0.2919520740156689 -0.5629776340199352
-0.039352530269928174 -0.018767795249189992 0.037369606498472555 1238 1155 0.7191129210129876 -0.24651790369548407 0.6496964906706459
0.018897897728246515 -0.03873652753013229 0.08999708341429025 1239 1155 0.7645672488337101 0.6401958995224558 0.07474043246787777
0.026157489941700883 -0.032657845538001266 0.09070674638036902 1240 1155 0.8578856814497134 0.5028065776427482 -0.10591365843340454
0.3747629357375511 0.17165971674143213 0.04766828693009242 1277 1108 -0.07976065682038705 0.4684224879763871 -0.8798969316809735
0.36231456744331464 0.2447671343591638 -0.0896585795123324 1278 1108 0.19090975204757987 -0.7102098442585915 0.6776100970995922
0.40354977370063727 0.09136664486146005 0.05670058661859605 1282 1277 0.19671065181921266 0.9794608869868998 -0.04428645756544371
0.4167804064918683 0.1572445584835806 0.05372190777098931 1284 1277 -0.02073016486821078 0.957716285441117 0.28696650826430203
0.4147868953756854 0.2493431053747345 0.08131797021593086 1286 1277 -0.5807057462557162 -0.762838903585611 0.2843547844540244
0.37379560169837717 0.19549525949586172 0.10139021946309054 1288 1277 0.3655162755956736 -0.8994976392629009 -0.23937804668585616
0.4095569398667048 0.10749031578474863 0.0779699784255176 1298 1282 0.9960857981052912 -0.08326097288478725 -0.02967647565368923
0.48718320607763665 0.10100167950619737 0.0756572519478613 1301 1282 -0.8255394870633218 -0.5075243628025031 -0.24678649975462788
0.3519726588312595 0.01787707079789011 0.035237455914189926 1308 1282 -0.9801843843820323 0.0425921707312174 -0.1934540762197049
0.2574557188911167 0.021984136475600144 0.01658312149040553 1314 1308 0.5674332067639429 -0.3808554843841995 0.7300470230581488
0.3586894788387848 -0.045962949139610104 0.1468282396854774 1317 1308 0.11311918844723232 0.691514790601181 -0.7134503091209956
0.371786997531262 0.03410417316164611 0.06422131076267289 1321 1308 0.002118937969552093 -0.06180685046350189 -0.9980858797406481
0.3721194152415668 0.0244079517491001 -0.09235779990429008 1326 1308 -0.9429856456736724 0.0010662451656665568 0.3328316919625503
0.15135922194209106 0.0246575679441685 -0.014439340603297582 1332 1314 0.8732057817728038 -0.11443997109468795 0.4737247678709582
0.2818050799438286 0.007561689136732098 0.056329125537802026 1333 1314 -0.8734442996246264 0.017804646689652565 -0.48659844842488187
0.15831064575678275 0.010079050312234477 -0.012469995471231479 1339 1332 0.1454031560496296 -0.5809914890359013 0.800816340916351
0.1612845798876448 -0.0018039821192932393 0.003909119766063028 1346 1332 -0.8410945624002295 -0.5371366749036219 -0.06359347116054556
0.1516365640948805 -0.007965362009271754 0.0031796526627176484 1348 1332 0.29030895201441836 0.8606681565803229 -0.418295393984824
0.16598542190081972 0.03457416324883168 -0.017495083984292358 1349 1332 -0.0917856926523723 -0.9629647216302255 0.2535238283080043
0.1641760787114902 0.015591535234625498 -0.012497446565798931 1350 1332 -0.9001608491843426 0.289852550389414 -0.3251091272611021
0.03965479319551584 0.055687493881658556 -0.05747052720601069 1352 1332 0.9395747653247924 -0.21616718567729412 0.26546376061756477
0.1701318883965329 0.025668736986668543 -0.020606041648499263 1353 1332 -0.4869676169302332 -0.75492037648552 0.43926958149665923
0.1358317569570447 -0.027504959250120486 0.010334423094689208 1366 1348 0.011752853459687015 -0.5967310476496538 0.8023552375391475
0.13892674734880217 -0.18464780675298015 0.22162623911858123 1367 1193 -0.1278454086486643 0.7353725956428435 -0.6654943253439228
0.11694595700195926 -0.058213302592881704 0.10720608592717237 1389 1157 0.8311801491846463 0.5498980146548467 -0.0821689301381436
0.12928350064254274 -0.05005094361410966 0.10598641921295421 1395 1157 0.9508501406818554 0.15634683198860447 0.26728201977017274
0.38992417362889104 -0.007194197040384284 0.1792519765594481 1405 1317 -0.05468116627588665 -0.9095088521022825 -0.41207234559273354
0.38904441791842953 -0.02182712572217651 0.1726222167381339 1408 1317 -0.797342955631764 -0.5664401934142281 -0.20830198844287234
0.25065423300768536 -0.12014085954749343 0.13646845066510935 1411 1317 0.8015052750373315 0.26748574966051875 0.5348276991853375
0.4102009782861528 -0.06689544483114117 0.2429306554033345 1412 1317 0.4222541255508848 0.538915737989312 -0.7288835852196787
0.44564880265443463 -0.021653991228703824 0.18174158524307826 1413 1317 -0.7476000343285596 -0.6216704273999762 -0.23370936730962938
0.2734661109459461 -0.16483334199134902 0.12791506558942264 1414 1411 0.12166384361097839 -0.40890929187028396 0.9044286042468725
0.2825801015548895 -0.19546524819621908 0.1956669429008344 1416 1411 -0.10150303907813708 0.6356243278673341 -0.7652965744605825
0.2757528614711898 -0.1527122436674588 0.14419199696297694 1417 1411 -0.9029119401364286 0.2139971628221952 -0.3727670085497389
0.11505438050705938 -0.11462545195777743 0.0778476621893834 1420 1411 -0.8827253637953352 0.13501815618578142 -0.45007336025650857
-0.012889774844451392 -0.09505562349376445 0.0126130396374178 1437 1420 0.9109373422443996 0.21268662456270698 0.35349336378047014
0.3832102378490973 -0.0025737690541714586 0.1663214445816551 1453 1405 0.29169465163153047 0.3286241945812606 0.8982874645375933
0.38853642393429205 0.003426730449837423 0.1827236863346809 1456 1405 0.31728654435062 -0.6708480268045521 0.6702926030521901
0.4314904184179007 -0.08739213015352801 0.2734673541219001 1457 1412 0.6933977237440946 -0.015306261258692156 0.7203924729429014
0.45973920281987435 -0.08801570196446844 0.30281589530701525 1461 1412 -0.8228888676039712 0.5634120294182213 0.07362605979064368
0.41323966218103 -0.05617859541248774 0.30697633311835854 1464 1412 0.51137822949112 -0.2728804929343889 -0.8148794653066258
0.4329274786540558 -0.06668436346074283 0.27560386468817316 1476 1457 0.5581946750380168 -0.6184337564859839 0.5531350590930189
0.47809788722554064 -0.11672945830685097 0.32036483739494864 1494 1461 0.5189897366002904 0.3735159093232744 0.7688533792511865
0.5013175457970426 -0.10001831495684266 0.3547634231448389 1495 1461 -0.7323950174015337 -0.50638163458286 -0.45516500155723505
0.29116410885374916 -0.24531946854757988 0.2241583709792394 1499 1416 0.27211856917536287 0.7717590364012258 -0.5747516629319175
0.29465033857045486 -0.23543212680904443 0.2167949766577442 1500 1416 0.25817424895804514 0.1894571877921824 -0.9473394487557387
0.3001777291267384 -0.23137593656215144 0.19651287980346707 1501 1416 0.12065612206825765 0.5818994895923123 0.804260582286398
0.30355855108656976 -0.21507093239737804 0.21904851074710358 1502 1416 -0.9034874218049765 0.028616835462853703 0.42765822261274045
0.29473541554346494 -0.21479147060077763 0.2232248682404899 1503 1416 0.007499640212014099 -0.8650878159011682 0.5015643788947104
0.295403966346105 -0.29190919056131104 0.2679365155470566 1507 1499 0.321722758640399 -0.5552568611460625 0.7669317340696198
0.31169257977491627 -0.3200214832791929 0.30676576901777847 1523 1507 0.34164750839572233 0.9373211173193394 0.06860104251554767
0.41020960347711827 -0.04973680546861702 0.3265474749146993 1540 1464 0.1847794408168734 -0.7587907702338299 0.6245743552687338
0.41233447817827923 -0.05846253439179424 0.3337297796161175 1541 1464 -0.2006932762382766 0.9788290441586216 0.04019839778232812
0.41039199721004294 -0.048988590744685576 0.33411885404904995 1542 1464 0.0472103360240113 0.43482154812956214 -0.899278269199646
0.41677725233928586 0.009821550303400374 0.212490378918026 1543 1408 -0.3327843994080777 -0.12019353699271516 0.9353117433111732
0.40970874247513006 0.007268578459311698 0.2323568759515865 1551 1543 0.9036535236684368 -0.05735452019124885 -0.4244063715064247
0.4797931583201291 0.0028203492006508906 0.19944130394432566 1561 1413 0.844114142956776 0.4458565229852945 -0.2977973716670638
0.49629038640073064 0.011534095809785736 0.19362120105517552 1564 1413 -0.5252837084868545 -0.7626619120529389 0.37739082328807716
0.46405425969987407 -0.03526968970581118 0.21678129187599998 1565 1413 0.40406457070121177 0.2794159435298334 -0.8710100764086364
0.47832283691182875 -0.025402781657951887 0.1860236471113042 1567 1413 -0.5906871824975718 0.46539090875666644 -0.6591661053783973
0.37541474800925484 0.055676494195435314 0.07118532628127272 1587 1321 -0.17320590991247392 -0.8909084431071191 0.4198593321242736
0.3126316403003081 -0.2672570637337913 0.22337455403155698 1602 1501 -0.9808408164320621 0.1519459702851066 -0.121916836142526
0.14710970254625907 -0.24161539893542183 0.2028004602284862 1631 1190 -0.2682746295236502 0.7505163738157129 -0.6039485870407028
0.033256672817623234 0.07689613222051048 -0.053509189912512196 1656 1352 0.03255309020190562 -0.9992533885059132 -0.02080773600748509
0.03824661993519836 -0.07627585651469018 -0.05669873356780967 1657 1352 -0.30833528980546154 0.9400207985606248 -0.1459117792847002
-0.046363688037396926 0.18167531513692595 -0.09673839490497638 1658 1352 0.4969949677261669 -0.8173766540591958 0.29136130054257403
0.02578270915711935 0.06302063134590004 -0.0544428597766664 1659 1352 0.29086357237286714 -0.4318913290865016 -0.8537378181423083
0.031005579961058 0.05526540577826354 -0.06977294146485272 1660 1352 -0.3626862777003957 0.5670101208887774 0.7395662152759045
0.017550625208444186 0.07630037729470662 -0.04233647481330979 1661 1352 0.5969182857575962 -0.8021708859968938 -0.014506198232861907
0.042378107897407355 0.042935871195850385 -0.04293982772459136 1662 1352 -0.028467065335344148 -0.9974718680671358 -0.06511143222086248
0.03528009613978952 -0.20577494476040792 -0.05917478928507255 1663 1657 0.21615749346854682 0.974413445844828 -0.061598494902095485
0.05961712764702553 -0.09606636907297436 -0.06611012373577829 1664 1657 -0.1731045079917872 -0.9776691495963526 0.11915478689698504
0.0333284924348753 -0.24454076716970702 -0.048014600038238577 1682 1663 0.958564421037057 0.17336248907165475 -0.22605242335523026
0.044214813152907505 -0.2425719066371321 -0.050581854909925804 1685 1663 0.03674393362892278 -0.15887880229657952 -0.9866141137862754
0.049660015129407695 -0.26611666852970034 -0.19679138099624618 1687 1663 -0.25927428381884626 0.2819293475318164 0.9237384309156508
0.014081597098996592 -0.22742945268327128 -0.07003314041101412 1689 1663 0.9709560205807027 -0.17441035582961242 0.16378471808283535
0.05492369031910711 -0.23476581381637948 -0.06314373390631169 1690 1663 -0.9804793415154452 -0.12375632391156886 -0.15278950603144772
0.03350570242980556 -0.2374691970846752 -0.06648132976502297 1691 1663 -0.14214050097377554 0.09473423733646837 0.98530274649937
0.008726616684764701 -0.22095435596712143 0.1052846417425392 1692 1663 0.21005850642316928 -0.06617053417496238 -0.9754470176725477
0.04297030234790621 -0.23174146005080373 -0.05373248935586251 1693 1663 -0.8353802280564477 0.42838743386368994 -0.34441846797179715
0.03721581376628451 -0.22879052763238378 -0.05610500437917645 1694 1663 -0.8474794035835587 -0.5307258898344062 -0.010425466950389017
0.01301608237258158 -0.2439453785035298 -0.05640270305927005 1729 1689 0.29490794666068104 -0.28524944508261374 -0.9119550740450112
0.06600023369434889 -0.2951942510206786 -0.22024761191637204 1730 1687 -0.721113841809586 0.3900997995612928 0.5725530311969876
0.036409759397828395 -0.27918673955337786 -0.19675324144289136 1731 1687 -0.45664729297545903 -0.7625089631201836 -0.45831575467091246
0.0011201112813152836 -0.3381133409109921 -0.23217182807942674 1732 1687 0.633233707243084 0.6560819935315283 -0.4105745849110438
0.10810870780841765 -0.22726439068652773 -0.30154084319483293 1733 1687 -0.4029026004634174 -0.5275046816037063 0.7479360303033864
0.06594357253233414 -0.2824695599582192 -0.22326677929123534 1734 1687 0.43437370512393175 0.6000196783377006 0.6717855832811759
0.0709628284614243 -0.2755362389663143 -0.21550419207155247 1735 1687 -0.5148179130576733 0.773815146315756 -0.36901576623129156
0.04661931570257711 -0.23894586709008062 -0.23295335183391075 1736 1687 0.44564938372145513 -0.8276036139099039 0.34127538005539404
0.0689960927537244 -0.28050118441272437 -0.21581736248557082 1738 1687 -0.3756919999238416 -0.9192876100676565 0.11732779367788629
0.04653803142993044 -0.33545422447024104 -0.20880375882635646 1739 1687 0.42208654404387447 0.8738557461003147 -0.2412863119709873
0.0739518472908067 -0.2786987537010223 -0.22447490167481227 1740 1687 -0.6045948224938461 0.05443657362796638 -0.7946708501419202
0.050543176718381974 -0.2765910813033455 -0.2552429258992841 1741 1687 -0.26450440392111063 0.8744992652285725 0.40655682926378783
0.04034575718801687 -0.24287657313511288 -0.23956896928654517 1742 1687 0.7755039137269263 -0.08741534327914821 0.6252617352386189
0.08629073537245367 -0.24805552319436397 -0.2025251371709317 1743 1687 -0.3292586963355739 -0.9408955930364866 0.07939895397243509
0.03795223153797737 -0.3861885041543634 -0.19086856838849833 1746 1739 0.504729963197089 0.5384733083773325 -0.6747548891384451
0.056211016194131845 -0.3667090420703785 -0.21527806478222722 1747 1739 -0.6793278617447389 0.3660074307165498 0.6360441941544556
0.04129234356183186 -0.3586711779588942 -0.20130994180859466 1751 1739 0.9888680441544756 0.13233480093126784 0.06802566951220378
0.05060807222827875 -0.3574245049514172 -0.2006690992985397 1752 1739 -0.8528320042514173 0.29670687381937205 -0.42970059757096646
0.03871340432903738 -0.3532862576648354 -0.20666224434789626 1753 1739 0.9501989548238245 0.26656159667947976 -0.16145235033098085
0.051442497776939065 -0.3497153344844536 -0.20882509881570344 1755 1739 -0.1997834081629361 -0.41908165569547595 0.8856958595829272
0.0472196255971653 -0.3585735689152459 -0.19010392252000624 1756 1739 -0.08865336800081641 0.33414019321504856 0.9383447722560838
0.006576086200232338 -0.20538547901763982 0.24008450211767948 1768 1692 0.09126624313481783 -0.32557176432802903 -0.9411022787861003
0.01877583108325778 -0.24890532085062933 0.11428544086932338 1769 1692 -0.43338740711494267 -0.7139420876227902 0.5499654997133904
-0.005206835663543754 -0.28841324120751227 0.14471927232203624 1772 1692 -0.1816775776609988 0.8927518518608369 -0.4122952689205616
-0.1278178976902663 0.3140895777547136 -0.13353168985927732 1775 1658 -0.5051909013701301 0.8067093123813092 -0.3065978448882359
-0.2065086283911114 0.4397461267588538 -0.18128870286193893 1776 1775 0.41519083050158256 -0.9096732960530455 -0.01053891433662037
0.101767520793063 -0.2356796295954629 -0.18911376952911532 1791 1743 -0.581257275477447 0.6275245909131473 0.5180278636365253
-0.08792360927941228 -0.030889334797335587 -0.020057320676019903 1860 1238 0.17053864832241108 0.5346930796355531 0.827659277733424
-0.0729253634941993 0.016134951526696577 0.05273226336237111 1861 1238 0.25176393478358855 -0.916532761297215 -0.3107774422495739
-0.0655872971451717 -0.010578875532121909 0.0436741530616692 1866 1238 -0.5220756694169381 -0.1969222098593488 -0.8298545888690178
-0.13567309649335535 -0.03701460371462254 -0.06772928059881629 1871 1860 0.29595268341961944 0.3287748875875262 0.8968383814648747
-0.1007440547877529 0.0017881928257185112 0.03811772462990854 1877 1861 0.38387790431226954 0.7547865796050796 0.5319163222057443
-0.08041651390294298 0.04175651317933596 0.06628436476593318 1880 1861 -0.28075882554040005 0.9468455917675235 0.15702836441733467
-0.09173202963917505 0.07991754399574987 0.07261313083474355 1881 1880 0.21424518377432888 -0.6826582618846851 -0.6986248626481059
0.020898516509095206 -0.27896180868874126 -0.29466000196855624 1917 1741 0.9476814748051459 0.24123484856817776 0.2090587719935044
0.060986815304397674 -0.2687572252434132 -0.2858165131590089 1922 1741 -0.07441703242107535 0.7920487495745467 0.6059050120134655
0.03082417548265546 0.05227521017405286 -0.04023167795433658 1930 1662 0.9074666667075083 -0.036273728375876904 -0.41855521194279377
0.38765681648317524 0.03801171073085887 -0.20481531188986132 1952 1326 0.14600323004200744 -0.3417674646965868 0.9283738777519367
0.3980841519591435 0.013603182178873376 -0.13851221799488547 1953 1326 -0.5919772629433888 0.1509093278966277 0.7917002557229864
0.37113303171389456 0.02047367484281317 -0.1024682512315454 1954 1326 0.5854257131790627 0.8005661889483687 0.12794729954739437
0.3940858120245977 0.05186146571951555 -0.09745182268775711 1955 1326 0.09724290331316002 -0.6208087055623716 -0.7779076865883253
0.4045142549362149 -0.014714787399369109 -0.1808755546383508 1956 1953 0.9195795561621001 -0.3715239483974465 0.12784129088790863
0.4155268301533569 -0.019164033143557052 -0.17934457037241586 1957 1956 0.9336091324517751 -0.12074829306514119 -0.3373334218907144
0.43988833564056895 -0.022314827305513124 -0.188146915725261 1958 1957 -0.5578614431462663 -0.4117945916534195 0.720566322093781
0.13807461908154872 -0.2451035819196873 0.20169325403418156 1960 1191 0.45632245412306366 -0.8103175222969038 0.367634779260221
0.1466693332027242 -0.2603657006004457 0.20861755898607184 1963 1191 0.9818762699804724 -0.15321375145642124 0.1115550842135158
0.3278948955358891 -0.28864446556684614 0.22920735577189297 1970 1602 0.14116876589383962 0.9598975267945311 -0.24221502346005044
0.41247647985059566 0.28648030145920705 0.08408367845306401 2022 1286 0.5856138591171274 -0.694458200496858 0.4180720222313508
0.436500039134444 0.257991635267217 0.1012341912946401 2023 1286 -0.7978550725516432 0.5846066911319949 -0.1471811804794091
0.40710263205830327 0.27953178894911335 0.09581122009930429 2024 1286 0.7011105723894508 0.43387508177315476 0.5658589742153736
0.43725394197012496 0.2981906176257014 0.12014602543508239 2025 1286 0.14581639619390677 0.8431259566095204 0.5175675800243892
0.4434499682420555 0.3340167024423379 0.1421384927229596 2029 2025 0.4743874815854455 0.30449971048363034 -0.8259760551192775
0.45391483111441633 0.3407338858389887 0.12391767854002907 2030 2025 -0.5711846802399573 -0.8181800572342198 0.06579859423563932
-0.024510997032578346 -0.34457593600565883 0.1790307584721957 2072 1772 0.08137242074868394 0.9480554343688086 -0.30752141796185345
-0.019948568373632413 -0.29141990053028993 0.16178849730262687 2073 1772 -0.23368863440719742 -0.9456109593380918 0.2262952401810368
-0.03364689992610321 -0.34684960712908125 0.175053443784125 2076 2072 0.1334249627275091 -0.7789238590647843 0.6127604761248777
-0.02882980247947904 -0.37497142223708735 0.1971761925156469 2077 2072 -0.993972126612974 0.09900054647995034 0.04709886742962145
-0.05729285496613872 -0.37213647578816744 0.19852489988863897 2078 2072 0.6161640160575482 -0.3235320626743432 0.7181009049830799
-0.025989775151436852 -0.3885729273117569 0.23500669590055592 2100 2077 0.3573570157022178 0.18166214803314573 -0.9161303549715993
-0.01403668159180746 -0.38249658193088754 0.2043634137915598 2101 2077 0.3163824202912399 0.9409685872165442 0.12033404340567266
0.04132144941713098 -0.21785322950163927 0.22541852720005584 2111 1768 -0.2303770251120527 0.19345405637363397 0.9536781188499123
0.003169488803774166 -0.185815956966884 0.38335393768851483 2116 1768 0.6434997488094925 0.4742031965426049 -0.6008655437540878
0.012290453882087592 -0.17909460112534478 0.37483726980871845 2125 2116 -0.9937914296511321 0.06783982539761092 0.08818362910416394
-0.02553266943637459 -0.17651265686082487 0.37819348740001646 2126 2116 0.8473087567758399 -0.44233296565919755 -0.2939547893505392
0.015847159786852093 -0.1981147734829045 0.36383768275926154 2127 2116 -0.8094697648396938 -0.08570224183085313 0.5808733300432519
-0.11982617987631199 -0.21247912638509678 0.4611965070556064 2128 2116 0.484984039662112 -0.05161067076348854 -0.8729987513945033
-0.06986004174601271 -0.21779638570390344 0.37125462725653746 2129 2116 0.8306883930886767 0.5255843817782485 0.1836242119616262
-0.022588791736574104 -0.18788741993670802 0.3817039679523302 2130 2116 0.8673380744281655 0.36042949786672773 0.34324224931494157
0.11502521523733014 -0.13070078315066128 0.4361636333165042 2131 2116 -0.759759671822424 -0.38956058886695 -0.52058408415348
0.02532754439967081 -0.17669253392060666 0.3747031721265648 2132 2116 -0.8309801583185659 0.182137208586664 0.5256405746602041
0.0014924497211925296 -0.17146827246541002 0.3897801781639011 2134 2116 0.5839263793282358 -0.7901001905925843 -0.18647163953314583
0.017930887985849183 -0.19371082506406365 0.3845307106914753 2135 2116 -0.7102012332258375 0.16122274392557026 0.6852893076399263
-0.009909038060850745 -0.18739088494294218 0.4113940879326452 2136 2116 -0.8960101113296224 -0.19298031861510198 0.39990558513515584
-0.16249890685086008 -0.2202552925251684 0.4794977175597855 2156 2128 0.425804536133116 0.5493843694224917 0.7189348451999756
-0.15456125504398555 -0.21001392245378012 0.4928997694140255 2168 2128 -0.9019448584969393 0.053015275147587825 0.4285847090505701
-0.23508568396342572 -0.2052807896962181 0.5311632382001483 2172 2128 0.9635325123600097 0.2601281960806061 -0.06275682615506974
0.23988929882312005 -0.07705015516053905 0.5002271545284795 2177 2131 0.5187572018500262 -0.7473031317774591 -0.4152457040889557
0.2588760018546848 -0.10440172268965632 0.4850290101161166 2182 2177 -0.2928869142114615 0.4031581404528113 0.8669952533147568
0.24108567156616278 -0.07991337538171372 0.5376914240603403 2183 2177 0.4769917227368166 -0.8652600047702076 0.1542855164479941
0.24899526125751154 -0.09426132166220494 0.5402498230267199 2185 2177 0.7632896819816175 0.6418176536864494 -0.0738847805493283
0.34602764960276144 -0.012670935614197921 0.5308572989453598 2186 2177 -0.8175987307538363 -0.5755465402306486 0.016688184390345334
0.2414524006500842 -0.08628641526761927 0.5329918069522148 2187 2177 -0.7659376279573493 -0.3761624514868754 -0.5213840812399754
-0.02570260726542123 -0.2174898958597596 0.3511357872627886 2193 2129 -0.9819436514154547 -0.18843145601478048 -0.016740723671154856
-0.14214206416917974 -0.239834208968071 0.34915066238353987 2195 2129 0.9448483539294481 0.034940888185576724 0.32563894486012485
-0.034561461850225246 -0.23585583319916506 0.3862279708012004 2196 2129 -0.94376197720225 -0.13652325157934525 -0.3011224537717217
-0.20075886639027504 -0.2598977109394811 0.3332000130380044 2247 2195 -0.998192885091423 -0.05350189346682458 -0.027358939093570223
-0.26575378488903095 -0.2633813574945123 0.3314186018066108 2259 2247 -0.9841595775375516 0.11720198218542553 -0.13301737222225982
-0.33754784054535564 -0.2548315188056428 0.32171503660992035 2260 2259 -0.4304363893170974 -0.5547682322288894 -0.7120089348184427
-0.34456632558738376 -0.26387729801094706 0.3101053674861228 2267 2260 0.3263789551823767 0.6711376269708741 0.6656208104303563
-0.30822366997441486 -0.18914538512680198 0.3842229767810553 2268 2260 -0.4387362429846285 -0.5471996666857404 -0.7127994345331283
-0.37871498452236735 -0.2770634097752255 0.26969820260816385 2269 2260 0.5963031040390041 0.16836897535786316 0.784904131885157
-0.3256940684693054 -0.2620927057022086 0.33948877690586576 2270 2260 -0.7042020271664854 0.10995457293044875 -0.7014338862831586
-0.36488811485134737 -0.25597292122971266 0.3004487980186444 2271 2260 -0.48639040382242904 -0.7450680452355396 -0.45639673863684266
-0.37776188471989236 -0.2756933648803049 0.2883688997809517 2272 2260 0.5088748494947932 -0.2441532550892212 0.8254911117516586
-0.3517496438167471 -0.28817378770916563 0.3305656671857614 2273 2260 -0.6408338203712073 -0.022758098434258658 -0.7673422206708684
-0.3944535716578713 -0.2896903434252401 0.2794314639347604 2274 2260 0.47719779978937815 0.6570609844690006 0.5835692954266907
-0.25853891196510326 -0.10254735965432626 0.4456426707552336 2276 2268 -0.5314432576489057 -0.7363390370523357 -0.4187754606138688
-0.3381826280947122 -0.21289738554719234 0.38288369615702444 2277 2268 0.8232312602728995 0.4641998556482633 -0.32681613504480633
-0.31910115785218984 -0.2021378138939011 0.3753085071954605 2278 2268 -0.9096182045342708 -0.41209894822570425 -0.05262298785813983
-0.3302323194831198 -0.2071807428697841 0.37466455022490786 2279 2268 -0.217072010625678 -0.9759148802529888 0.021676916379413547
-0.333787475385491 -0.22316405429138492 0.3750195698195085 2282 2279 0.5435329461978352 0.6492544675402515 0.5320155756897779
-0.31855636420852534 -0.20497036972005842 0.38992793634612377 2283 2279 0.2315690588397535 0.9241970340366293 0.30370316637461653
-0.2881645367335985 -0.08367594052467377 0.4297868634510338 2286 2276 0.9025317802552553 -0.20863354186054525 0.3767073543747241
-0.2265645534479291 -0.09791568584179138 0.45549805417110883 2287 2276 -0.8819548128942042 -0.37536387352510686 -0.2850573108428842
-0.27263441576737274 -0.11752322323505816 0.44060777762668246 2289 2276 0.6559974021047358 -0.33756617766785707 -0.675067762618354
-0.2593011940653525 -0.12438429413489457 0.42688694868132604 2290 2276 -0.6220265896071283 0.7253087887700609 0.2949747154497015
-0.3100114535675301 -0.06525402942873382 0.4509345450654018 2291 2276 0.7348373364792832 -0.6726026292213895 0.08729142042896888
-0.2698610411858783 -0.1020040305400116 0.45570401764608914 2292 2276 0.7762806897078431 -0.2631297161456479 0.572844693846269
-0.21799067779208112 -0.1195861167327239 0.4939809744633421 2294 2276 -0.5174251661054072 0.08412378393263642 -0.8515834583043796
-0.24775231772588713 -0.11474742327272627 0.4449989729685072 2295 2276 0.44501708094375536 0.801145264146941 0.40015754822722965
-0.1909304951693707 -0.012453520430141998 0.4960929245799782 2297 2276 -0.4460021230846333 -0.7483486844111192 -0.4909749003199109
-0.25317190774883047 -0.1168886269215291 0.4275753777897988 2298 2276 -0.651973704397801 0.47986528483014507 0.5870771645948193
-0.2637214260918797 -0.10912397692052327 0.4370748120076235 2299 2276 -0.34947142514604135 -0.8652055407902494 0.35956792848117997
-0.2713666308539258 -0.12805162892478678 0.4449408927263964 2301 2276 0.09470603749991259 -0.4928226827138405 -0.8649604441035432
-0.26864916852615794 -0.142192512757516 0.4201220165078352 2302 2276 -0.03703050637114052 0.9011880828954505 0.43184346798940865
-0.2730130014730745 -0.035992662069743366 0.4710122942327856 2319 2291 -0.9329740929103447 -0.3163508261877269 -0.17170176681811422
-0.34099163482445033 -0.05904270921171354 0.4585017094898568 2320 2291 -0.8838986806966826 -0.23012126285010231 0.40714533848115936
-0.3546862653717768 -0.06260807902687428 0.4648097910735638 2321 2291 0.910282285307068 0.3005549059357692 0.2846979268875741
-0.24810902155451192 -0.027418650420575483 0.49814266029218357 2325 2319 0.6230049429844179 -0.3772945785319603 0.6852106552202563
-0.21756191156352916 -0.04591811678790017 0.5317398339385732 2333 2325 0.2478125611509191 -0.7798163642053574 0.5748698745397598
-0.20818429118966517 -0.07542760489004348 0.5534938218024958 2342 2333 -0.4948118426664744 -0.2069877691385892 -0.84398892397
-0.2711896860644936 -0.10178377708381836 0.44602700140839635 2344 2292 0.9074176549662957 0.31210361717286594 0.28139746196986537
-0.19676137548436676 -0.07618437990988318 0.46910781494704246 2365 2287 -0.4767643985318425 -0.7920520610260742 -0.38124695528871927
-0.34267717638018697 -0.31859533003892415 0.3524255396107246 2388 2273 0.5244315416984298 0.736185582225552 0.4277877354425126
-0.19908027467526265 -0.11701712529353711 0.46955997663937094 2394 2294 -0.3179660453854488 -0.21801144404401948 0.9226963770644058
-0.22593596512640926 -0.13543056264329004 0.5474917201146764 2395 2294 0.22201514254291904 -0.17851681639249217 -0.9585619556120182
-0.21345311195609074 -0.14546771228063698 0.49359635059390117 2396 2294 0.3267543793150327 0.7783031540412287 0.5361676752732516
-0.20465225962335143 -0.12450477631882667 0.5080375726076957 2397 2294 0.5980822700939566 0.40638819049161196 -0.6907577265787282
-0.18134359514728673 -0.10866687833580174 0.4811171289026123 2398 2294 -0.7174352688291363 -0.4830460818180511 0.5019493180394746
-0.2059401983617419 -0.12522766552454181 0.4983259960241473 2399 2294 -0.019005094402674526 -0.09781060930483491 0.995023563084896
-0.2076780212275625 -0.13417145237286524 0.5893107953270047 2406 2395 -0.7526203245677769 -0.11282250779946318 -0.6487169866600798
-0.2360874881431738 -0.13843020967457095 0.5648234101627805 2407 2395 -0.3664689229257806 -0.2189875493928477 -0.9042925310653258
-0.2961677546201121 -0.17433183597787028 0.4165703582920956 2414 2302 -0.17231127248043776 0.5464760862321437 0.8195564120623856
-0.30220321307940184 -0.15519069872102714 0.4452765398949774 2419 2414 0.552106082543189 0.16129704290223928 0.8180233111408295
-0.20397694839825142 -0.1264940287705329 0.5908126548121403 2439 2406 -0.11857256082414264 -0.6565306150652501 0.7449215390238418
-0.20638705440663138 -0.13983867081129056 0.6059539308754591 2440 2406 0.46900525758584133 -0.8770374698952154 0.10411217391178398
-0.19605854770911268 -0.15915292632393718 0.6082467053553791 2441 2406 -0.05275685186188694 0.8576465236007762 -0.5115262995556789
-0.20744393280508108 0.0259346140201378 0.4978549040704267 2480 2297 0.8473076038042742 0.29133774927590317 0.4440632166508618
-0.11806153815913481 0.056667804143916985 0.5446990885203568 2481 2297 -0.8331220722064243 -0.3990038258322415 -0.3830190070658473
-0.20639019486452723 0.014364913448996233 0.5040909285454798 2482 2297 0.8410615334641728 -0.3671076166961307 0.3973002576019565
-0.18288927840959568 0.004107203297385423 0.5151922805749435 2483 2297 0.7278413798235739 0.47972095786688257 0.4900150287489114
-0.04104692452352062 0.0975956360226793 0.6106868306844001 2515 2481 -0.8037552477654009 -0.19324304156034292 -0.5627029665623654
-0.12926519733467118 0.07638573735436895 0.5489258854789368 2516 2481 -0.37339234798370713 -0.8573498049602793 -0.3543013779281491
-0.15004607308259846 0.028670566259950406 0.5292075035897462 2517 2481 0.7111949832402544 0.4129170022394165 0.5689474888559645
0.027117161282258884 0.1315308413812436 0.6709359742410014 2537 2515 -0.1545783488177235 -0.7918802548978834 -0.590788622080393
-0.0356707588877546 -0.19012167081739506 0.43096453500485626 2547 2136 0.9335577057980775 0.1449909530382709 0.3277920582962375
-0.013362099106352129 -0.18665691033968368 0.43879758213430503 2549 2136 0.18418126175277685 0.8074031275807173 0.5605153453671281
0.06494678640700421 0.1566290378568949 0.6771135301906879 2557 2537 -0.8650149669599256 -0.042327002896300876 0.499957529957431
0.027339687194594745 0.1547888433422503 0.6988495152883554 2559 2537 0.8962075925872562 0.24003773233169226 0.3730869041470277
0.08109626380799696 0.16918685431083025 0.7212281192101739 2561 2537 0.7934260178053124 0.399376462280613 0.4593186210527789
0.1101953370461899 0.18383407366678234 0.7380737303871951 2576 2561 -0.6560019171649767 0.03876594990832089 -0.7537630170044036
0.10845805979458695 0.18393673678582254 0.7360775542964292 2577 2561 0.1158567873629953 0.7411958597371981 0.6612154734504945
0.11436240586969437 0.22170989591558263 0.7697747167530042 2578 2561 -0.6354040438632006 -0.500709644590137 -0.5878363316916628
-0.2987840638453568 -0.1038568423081206 0.3875572795895992 2580 2286 0.1292054607453658 0.17970717155761734 0.9751980729084421
-0.2904971441100809 -0.09233086733801978 0.4501040799304497 2582 2286 -0.22253403262307717 0.633365718145261 -0.7411656167165669
-0.3003168847324507 -0.0643823913320064 0.4173987268274353 2593 2286 -0.41585833474349765 -0.6075285125949917 -0.6767355109704841
-0.31969306340531334 -0.09268910067368587 0.3858674406193016 2598 2580 -0.11014513027987646 0.6909658365182615 0.7144468231017955
-0.3267782740757259 -0.04824193804970043 0.4318250443882631 2627 2593 0.6929043991947186 0.4940363165151445 -0.5251776952049221
-0.31001064156972197 -0.03628672545533229 0.41911623982044616 2631 2593 0.24995978463635732 -0.7776352604226141 0.5768912443537334
-0.2496018783917644 -0.224220893961838 0.5585358132942385 2692 2172 -0.5108586496778383 -0.859427542921565 0.020192536173977718
-0.2738433634312346 -0.26500282050331897 0.5594939982322427 2693 2172 -0.29781284484353926 0.9363594831125519 -0.18584517166553732
-0.3084510014305366 -0.15619223496327178 0.5378976751176435 2694 2172 0.8061288271550225 -0.5728786324172214 0.1482106155086129
-0.24440699025786541 -0.20170536425378102 0.549672470901887 2695 2172 -0.6755748329184591 0.6934042008914185 -0.2505778508035565
-0.2632523331921981 -0.18236266627100564 0.5426825338881868 2696 2172 -0.6822831982392535 -0.7222449875938759 -0.11336584713191841
-0.27184650198962823 -0.19146020135980463 0.5412545561384347 2697 2172 0.9419535341400891 0.20835297867993294 0.2632728162879629
-0.24364104803822428 -0.1852213688348441 0.549137884803097 2698 2172 0.9787468927169239 -0.1787478666574246 -0.10051726300683682
-0.21465615458142692 -0.19051485983772562 0.5461611375148022 2699 2172 -0.9351739512498878 -0.25441348998172164 0.24642129984843675
-0.24907756087799218 -0.19987918194516202 0.5552312871600892 2700 2172 -0.33304380985201393 -0.08756487626782346 -0.9388366275148496
-0.2552684775819793 -0.20150691631263132 0.5377793508452264 2701 2172 0.5430029097117716 0.11247052508526707 0.8321647799754529
-0.24671622957843228 -0.19973551544826224 0.5508858728377971 2702 2172 -0.9898400631308539 0.07606000443791945 -0.12013128296164537
-0.2642384953949801 -0.19838909225787976 0.548759294664876 2703 2172 -0.22308873466309226 0.6644157282611003 -0.7132903732041336
-0.26787056626111966 -0.1875718494541746 0.5371463318340768 2704 2172 0.69683413733824 -0.6556226195779448 0.2908284128791827
-0.22483625377224373 -0.22806106657758546 0.5551069915231867 2705 2172 -0.5221402857890982 -0.2551140142459019 0.8138097822534578
-0.24821068813308161 -0.23948164825422957 0.5915384714438429 2711 2692 -0.6160568751791997 -0.7876866542658164 -0.004864281649374817
-0.3130649881278255 -0.322403970260216 0.5910263927802362 2714 2693 0.7623760646143865 0.6470998343749638 0.0066738635718462955
-0.26214591542794274 -0.2791841932499199 0.5914721399123629 2715 2693 0.4524780488869332 0.5562235026125487 -0.6970502352175932
-0.22710994157719494 -0.23611507168558452 0.537498618160717 2724 2705 -0.7854272971209545 0.6187091441338117 0.017405628471214556
-0.3795843914487255 -0.11600549982821542 0.5408775605982218 2744 2694 -0.8231212969259651 0.45015401003611444 -0.3461685973558591
-0.4271934688207935 -0.08996873322626506 0.5208552776165464 2745 2744 0.49661801858506277 -0.14702927039921698 0.8554255883842383
-0.4123675914738371 -0.09435809858912876 0.5463928827339902 2746 2744 0.32341050091199164 -0.9188925237092209 0.22592515966831506
-0.3312162337561141 -0.32493000545482614 0.6030828584706356 2748 2714 -0.3483081699300822 -0.9140399780935284 -0.20787577349643055
-0.3568905028156107 -0.3923051357408035 0.5877600524027513 2749 2714 0.39797783554700844 0.7468052742313228 0.5328184726467327
-0.3290807988665835 -0.3401202356561051 0.6249920855950326 2750 2714 -0.18625039821501185 0.8515507490985351 -0.4900735770009164
-0.3918944378936483 -0.05293158059963072 0.45971295031554155 2764 2321 -0.047012358465897075 0.785494238473944 0.6170807398353256
-0.39321949181505456 -0.0307922484134582 0.4771055100769542 2768 2764 -0.759359218688421 -0.399427010943768 -0.5136454418384706
-0.4132604535959716 -0.041333901511995924 0.46354941117740184 2772 2764 0.6834071704186556 -0.53174545883769 0.5002013658776442
-0.2637133947964211 -0.1576934787029689 0.5730063298525377 2783 2407 -0.4685115450521329 -0.37315038489522223 -0.8007844419101878
-0.43642573472216684 -0.2952518308931485 0.27780473621187035 2790 2274 0.6864233867573838 0.12669510850270665 -0.7160805007776783
-0.4030641663234484 -0.28909419173102296 0.24300177193855832 2791 2274 -0.5158556062519855 -0.6847408910729849 0.5148037544452947
-0.4067840138879522 -0.29403187527095875 0.2467140345736092 2793 2274 -0.7767328154473364 -0.3344320856132301 0.5337052684016143
-0.46102356534128375 -0.31738539652629144 0.2839828788797581 2794 2790 0.7375709407883088 0.23075958959927853 -0.6346173013026211
-0.39763356576582204 -0.29755293095884666 0.22944115518175273 2798 2793 -0.9556782115503889 -0.06260932509376392 -0.2876790370867391
-0.4278274634740614 -0.29953102309761814 0.22035216339181715 2799 2793 0.5797667532516497 -0.03515159287199463 0.8140238800812922
-0.40594492441591234 -0.3008577740705973 0.2510764318156969 2800 2793 0.9932543331826356 0.1153597881941001 0.011745164184917308
0.10045276970232675 -0.24204309913404293 0.25706454972425336 2828 1205 -0.03991632284633359 0.9247416826774152 -0.37849637711525086
0.09849507325044285 -0.19668913408931413 0.23850119113578813 2832 1205 0.14192624890466082 -0.9357375548753556 0.3228810435249229
0.10533468678057369 -0.24178356369885234 0.2540612554012737 2837 1205 0.38833914143842996 0.7877841855943323 -0.47810959847543083
0.3642564452699741 0.2834647177097428 -0.06471417766319557 2864 1278 0.33908839380315525 0.3692249125595575 -0.8652699146124193
0.4071830692701425 0.33020645019776196 -0.17425233043402483 2865 1278 0.008034675865135453 -0.5982424517380253 0.8012748672722856
0.4094342144049346 0.16259165063876713 0.050247829792514395 2866 1284 0.29331147744246383 -0.5728611632279842 0.7653747218621739
0.5331718401869235 -0.07907799304043035 0.3731320610628474 2870 1495 0.2881574361085507 -0.9239562270920268 -0.2515356484342001
0.5418837512008735 -0.10701211315169626 0.3655273425603915 2871 1495 -0.854719229139423 0.507347871199797 0.10978696155894219
0.5034483523439266 -0.08419746581022848 0.3704642920438597 2872 1495 -0.35495458082299186 0.5475817220487895 0.7577344542983752
0.4309484618369512 0.027646744793030694 0.525232445317504 2873 2186 -0.9766973434819589 -0.20680215740276747 -0.05740354456691223
0.32044782303652897 0.0042497624516597875 0.5187379786473697 2874 2186 0.8620061909137385 0.2776697196631668 0.42408118752022667
0.4312438903265938 0.03993942833631272 0.5732463201003879 2875 2186 0.7056963549901943 0.42329588298043774 -0.5681665688909944
0.4586312399750408 0.05636710614696887 0.5511963599854709 2889 2873 0.5260979625052524 0.13096382844830895 -0.840279363953432
0.48522656675943804 0.06298759522457814 0.5087185215081856 2892 2873 0.9527178934461317 0.19597579136061155 0.2322113363041251
0.5121125308706762 0.06851808660029284 0.5152715900471974 2906 2892 -0.13417344128114164 0.5936008227407601 -0.7934957787513862
0.5096609581800426 0.07936416427612421 0.5007730979257664 2907 2892 0.815943526723864 0.5740131201779267 0.06888467943617245
0.5309509545575122 0.09434159451357721 0.5025704705718216 2909 2892 -0.9895641919222363 -0.14141057545033098 0.027672354726293494
-0.4817129434385063 -0.05036997217642442 0.5308887897193874 2910 2745 -0.9192161948677672 0.3906878412309894 -0.04903669857456032
-0.5303948349038765 -0.02967905834153182 0.5282917953984048 2928 2910 0.8479552560949386 -0.1651117714040519 0.5036963237951843
-0.5013625286246775 -0.035332157939946054 0.5455373585799733 2930 2910 -0.16267294447821168 -0.877324816160817 -0.4514849721565241
-0.5049469702178472 -0.054663704263483714 0.5355890446911467 2932 2910 0.8963812068916372 0.17743599346081454 -0.40622309160862047
0.487429081283173 0.14177418313422757 0.08586289628492111 2944 1301 0.6361445159467244 -0.7708451372483833 -0.03343544842572035
0.5315481561678543 0.08831310081374108 0.08354401902367188 2947 1301 -0.47151986226110604 0.3548412249351627 -0.8073145140400866
0.5118593934450365 0.10312983546521523 0.04983382952412474 2948 1301 0.5004437831860759 0.2398914885060347 0.8318702384463378
0.5308929498163766 0.11225371375662875 0.08147264612866884 2949 1301 0.9049171745115935 0.4255841183135862 0.0017508607031396057
0.572368705872919 0.13175983384130932 0.08155289465688535 2962 2949 -0.181662184371619 -0.5967356639076993 0.7816043744695709
0.5388315617336042 0.02159485898554741 0.22584697907063714 2991 1564 0.9577377963772916 -0.11347138904221651 0.2643152611167195
0.5737074023418378 0.017462819827439233 0.23547196928392816 3000 2991 -0.8999448998859908 -0.06483624806454295 -0.4311559324723562
-0.16690731191634217 -0.03589453498392443 -0.11935022901864151 3017 1871 -0.704900380264872 -0.6768171482202061 -0.21221216218093303
-0.181219296245604 -0.04963632983933855 -0.12365889053258627 3039 3017 0.2196885394313848 0.13676663336729877 -0.9659357295596223
-0.16879509431964593 -0.04190166933275572 -0.1782861395579941 3040 3017 0.8069695271589397 0.39012604508503623 0.4433980730485706
0.36946267618535605 0.21831680010896143 0.1174653729998413 3047 1288 0.8832436397682502 0.30295735672757546 -0.35790712875489644
0.3901453508290036 0.2254110696377406 0.10908435969458627 3052 1288 -0.7576084554106878 -0.2231083841590729 0.6133939005306129
0.34947263115467087 0.21343334591899435 0.14201482395755838 3053 1288 0.2564233767149444 -0.4463869295972567 0.8573131055564469
0.3562424373366311 0.20164833226599527 0.1646486556940597 3057 3053 0.544382587976395 -0.231524984196325 0.8062529253286552
0.5733029636530721 0.10933286142797666 0.48612419179918687 3068 2909 -0.5459952672593285 -0.348776311220363 -0.761737653567113
0.0508782819260728 -0.224386795699879 -0.2427292893341172 3091 1736 -0.6070753887163391 0.2227619993673711 0.7627821209577196
-0.5489654230944337 -0.004278411268673286 0.5109663176088166 3101 2928 0.28856518125354796 0.5247709039039835 -0.8008405800057232
-0.2983790967200072 0.4514259548167954 -0.18447343740054428 3106 1776 0.8982037512609915 0.39315099137018844 -0.19662736128352187
-0.22638553930976582 0.4829381127524157 -0.20023367354197208 3110 1776 0.830768341316315 -0.3894191416007427 0.3977143387174759
-0.194070991337976 0.46779080524614775 -0.18476370623773997 3111 1776 -0.5803153739541481 -0.7160718449368186 -0.3879113038327679
-0.2045369385024871 0.4548764996263644 -0.19175965946015303 3113 1776 0.4046681611068104 0.6111969185888109 -0.6802073258161627
-0.19891555534658717 0.4633668440450997 -0.20120865093357282 3114 1776 -0.617271259404639 0.7455819256399736 0.25116485516887105
-0.24913573904699463 0.5240261744429822 -0.18077428763949566 3115 1776 0.6518903531424339 -0.6998457393532289 -0.2919844321003526
-0.17154178644778034 0.4407241331344011 -0.21552894549704646 3116 1776 -0.5866341294697411 0.8019764704090582 -0.11266826994104384
-0.22553985865742676 0.5145438807149404 -0.22589975256466735 3117 1776 0.5687634857298718 -0.7069793038582515 0.4203431469841136
-0.18867003476187746 0.4687142817954492 -0.19865120691459398 3118 1776 -0.8114504234007438 -0.5492178482474226 -0.19976978132146278
-0.20792964651038656 0.4556787072026524 -0.20339270228680825 3119 1776 0.6178512811105232 0.6344090289925671 0.46452661749655794
-0.1898162756906439 0.4742774968221881 -0.1897743071558111 3120 1776 -0.789087455211004 -0.5870112793633007 0.1809937731770982
-0.21643027426895722 0.4544790356360941 -0.18366982787381467 3121 1776 -0.13404910408891912 0.791689265882677 -0.5960360257393055
-0.23454637425453648 0.5614720811750384 -0.26422126692064324 3178 3117 -0.3892091988134789 0.35831925279002963 0.8486009148233137
-0.25078680712720797 0.5764235771562808 -0.22881191319804473 3179 3117 0.847024676992592 -0.4419214724845125 -0.2953889109677539
-0.21225426542604459 0.5563198446090672 -0.24224963920425618 3180 3117 0.4305681764400889 -0.9002214903764992 -0.06490233972185389
-0.14128807543972174 0.40794545743528915 -0.2529468342671589 3192 3116 0.06742719502824682 -0.6477687695957642 -0.7588472800946263
-0.13973217405231125 0.3929980118695494 -0.27045744753584505 3203 3192 0.5899728309288468 0.5180467886021566 0.6193218739757177
-0.11342171086970258 0.41610085702417576 -0.2428381326976207 3204 3192 -0.9705914335231026 0.035508252451546735 0.2380996286838887
-0.30549122691096864 0.42312755500262783 -0.19572079900663555 3205 3106 -0.9083407830094614 0.3896700699030998 0.15190213475613784
-0.3895273206994348 0.45917828745178835 -0.18166741476824222 3206 3106 0.9321555301915597 -0.21450402795355655 -0.29167462955319257
-0.14138980153308242 0.4020778405589321 -0.25931048680603913 3212 3203 -0.567762197685867 0.7107023212401212 0.41538933238928755
-0.2277542415681782 0.5101854395778896 -0.1961240555244658 3230 3110 -0.5902881949747949 0.7916002333691241 0.15788894009191046
-0.2899221663970483 0.5935551295387554 -0.17949552078074965 3247 3115 0.7706092906251496 -0.623192225371238 0.13338954771288553
-0.2374329066120379 0.5511070316356361 -0.17040982883843375 3248 3115 -0.089397521197642 0.26480100825499625 -0.9601502534660159
-0.2480619620605334 0.5825909538054391 -0.2845683664159443 3267 3178 -0.7973512989682924 -0.4428757570447843 0.4099902070240044
-0.4739944504045442 0.4571004429781097 -0.16839609982596665 3268 3206 -0.9877519372439979 -0.15562867330317698 0.011217241934722594
-0.5564035281909694 0.44411619565805455 -0.16746023472837246 3269 3268 -0.9209972673751015 -0.3684012782213175 0.12666701106639852
-0.6324480364705497 0.4136981965561103 -0.15700164715922454 3270 3269 -0.9416496786034304 -0.028060983030220487 0.33542281379988764
-0.6968683598329305 0.41177848305569886 -0.13405463552730268 3271 3270 -0.8706347505163045 0.07817397063792954 0.4856788666476155
-0.7562233568792757 0.417107946178511 -0.10094377281679612 3272 3271 -0.9036183944484055 -0.3455159461987204 0.2531650215509419
-0.810342089172897 0.3964146036011721 -0.08578143204153141 3273 3272 -0.9710463244661598 -0.1005549429000804 0.2166973446979066
-0.8510824584615558 0.39219580846819896 -0.07668986799929278 3274 3273 -0.930361662032059 0.35235597010687353 -0.10135308653903424
-0.8929406263196676 0.4080487567832953 -0.08124987372870174 3275 3274 0.33828328630873583 0.3514779203046305 -0.8729419738691077
-0.8830516346686785 0.4183234654670324 -0.10676847379193706 3276 3275 0.6334980383827672 0.6591162330767322 -0.40527278055641114
-0.8596413500725758 0.4426804447524433 -0.12174492289997199 3277 3276 0.6925461117229245 0.4397903440803884 0.5718079541166882
-0.8292814045512118 0.4619600431229911 -0.09667791574794755 3278 3277 0.9810116831699833 -0.05774017232787985 0.1851543949884605
-0.7719744046220722 0.4585870801825192 -0.08586189481515195 3279 3278 0.9287859501543674 0.18332796634505405 0.32209861153323177
-0.7005812056969883 0.47267899228307175 -0.061103068260052386 3280 3279 0.8518673854931299 0.3717339680026001 0.36896587181762647
-0.6328533736420142 0.502233751841609 -0.031768386564244175 3281 3280 0.9166876456689929 0.3791058645013339 0.12634280263843814
-0.554640224648742 0.5345796262564725 -0.02098863132954133 3282 3281 0.9093812764224868 0.4134606564382575 -0.04556291990043612
-0.4713501604907281 0.5724484118741323 -0.025161730798515542 3283 3282 0.9885522087160074 0.15081078253731306 -0.004542963040435122
-0.38226698605650405 0.5860386938328193 -0.025571118957695285 3284 3283 0.9489640280024296 0.15707090653890743 -0.27348858088858063
-0.29739640239813336 0.6000863280110795 -0.05003056610109526 3285 3284 0.9721103127037564 0.20674166018093632 -0.11072229170603137
